ply
format ascii 1.0
element vertex 1219
property float x
property float y
property float z
property uint8 red
property uint8 green
property uint8 blue
end_header
1.119492 11.254263 -3.877584 106 83 51
0.522734 -0.110552 -1.469380 104 122 132
0.606340 -0.036457 -1.901006 187 155 108
0.652016 -0.385684 -0.948140 140 118 97
1.441413 7.025301 -3.289956 148 112 67
2.256825 9.481858 -0.608751 123 52 91
0.220826 7.618322 -5.417846 145 126 96
2.738145 8.263183 1.223385 135 120 82
0.679791 0.506865 -0.595511 96 72 87
0.391174 0.186254 -0.627391 66 79 96
0.275813 0.092525 -2.036256 87 104 111
0.592321 0.078688 -0.678654 93 95 106
0.679302 1.903017 1.159121 0 0 0
0.430299 -0.308253 -0.950716 109 123 138
0.251627 -0.402741 -1.662323 198 165 103
1.861797 0.122486 -0.913096 27 15 21
3.163913 4.843524 0.776036 58 25 15
-0.350399 10.953170 -3.327884 90 79 66
0.903268 10.134991 -1.226196 71 95 100
2.317767 8.407788 2.729823 147 164 162
1.854048 10.744484 -1.367599 66 82 87
1.749123 10.238545 -1.515448 186 197 203
1.585186 5.848911 0.946519 137 147 151
1.803008 9.774426 -1.610854 154 169 178
2.051971 9.410867 -1.106180 183 190 181
1.378443 10.720670 -3.726110 90 91 84
0.688236 10.043718 -4.763565 137 150 158
1.810034 5.345839 0.535268 125 130 121
0.760134 7.796795 -5.039680 127 103 67
1.944944 3.835396 1.092074 123 152 179
0.502429 6.577033 -5.289838 116 103 84
0.446166 0.538317 -0.540462 171 178 203
0.790787 3.534324 -4.611482 119 90 43
0.445617 0.374684 -0.583725 53 61 81
0.654162 -0.597701 -0.845211 89 86 80
2.281530 -1.544469 -0.751600 223 186 126
1.364596 5.951140 2.039965 122 136 140
-0.261539 12.578433 -7.712111 44 80 76
1.685125 10.649932 -2.852349 104 101 97
1.898261 3.965720 0.856862 65 65 47
1.850973 3.862913 0.852601 65 65 47
1.943927 3.887593 0.649298 151 131 95
0.234858 4.880644 -4.338931 37 28 18
0.679713 5.539490 -4.839559 144 129 109
0.304252 1.023484 -0.576250 25 28 35
0.830336 4.112400 -4.775474 104 76 40
1.687879 0.539211 -0.738115 169 165 180
1.822636 9.301614 -1.041752 148 163 167
0.916980 10.119506 -4.387541 149 167 180
1.060755 9.755427 -4.152820 166 173 164
0.264176 0.352258 -2.355212 86 101 117
0.290500 0.095882 -1.981060 151 174 187
2.070958 9.937852 -0.828593 85 94 100
0.234228 1.233084 -0.328246 111 100 93
0.067263 -0.075921 -0.677098 65 76 83
0.559537 -0.199344 -1.348390 63 74 84
1.524584 8.933854 0.926655 164 185 189
1.860335 5.941217 2.295196 134 154 166
1.856662 11.552678 -1.594674 171 194 207
3.142392 3.810320 1.546334 72 56 47
1.240037 3.690478 -3.593069 170 144 111
1.087685 -0.278820 -1.087379 137 119 98
2.327924 -1.687151 -0.588280 0 0 0
0.770349 4.909123 -4.864909 153 130 89
1.543111 -0.176781 -0.941100 175 176 191
1.388708 8.566679 1.638223 82 91 94
1.774436 5.938017 2.087306 93 108 107
1.678372 10.378529 -2.502823 203 219 232
3.224418 7.655301 -0.343204 138 116 81
1.108974 6.370070 -4.164039 181 158 115
0.748103 4.144319 -4.530340 217 227 234
1.380889 0.694319 -2.877478 201 165 107
0.866574 -0.425702 -1.369728 172 134 91
0.295855 -0.240081 -1.286405 39 52 58
1.019431 3.565396 -3.243236 167 134 97
0.708290 0.026506 -0.753594 160 168 189
0.697347 -0.275271 -1.443513 173 141 100
1.129416 3.972910 -3.847474 198 198 198
1.029532 3.220685 -3.999434 165 125 73
2.790280 2.021115 0.425240 186 146 90
1.437072 12.190217 -3.303141 85 61 34
0.160944 -0.274921 -0.672672 169 191 215
2.639351 -1.744054 -0.013915 196 154 100
2.389489 9.923323 -0.643086 124 56 97
2.919243 0.812339 0.560880 200 163 111
1.793151 0.270703 -0.868617 105 101 106
0.823703 9.751287 -0.816331 188 206 215
1.368083 5.709248 0.878494 180 200 210
1.319898 10.705062 -2.674319 68 83 99
1.521523 11.479886 -2.992635 69 57 43
3.305895 9.244785 1.341642 70 59 49
1.695591 10.382128 -2.637493 161 183 196
0.346631 8.059042 -5.048202 143 131 104
0.198444 6.388541 -4.183206 50 33 16
0.603685 7.923860 -5.033720 50 38 20
0.697145 7.509555 -5.117694 131 115 85
0.747014 5.259987 -4.715294 134 117 97
0.445519 0.563374 -0.516274 165 179 199
0.445519 0.563374 -0.516274 165 179 199
0.445617 0.374684 -0.583725 63 71 97
0.462821 -0.036282 -1.701171 50 80 97
1.801281 0.493198 -0.772858 178 177 195
1.794406 0.355921 -0.809272 179 179 194
1.354107 0.018868 -1.294517 100 99 93
1.511156 -0.380855 -2.678275 227 198 148
1.786331 5.009425 0.351342 172 170 158
3.021156 5.337289 0.473216 0 0 0
1.211531 3.751372 -3.543517 197 188 174
0.210337 0.158022 -2.134328 149 176 193
0.248758 0.144706 -2.027383 125 156 175
0.246438 -0.228096 -1.283474 92 110 123
0.446027 -0.157468 -1.644171 146 168 180
0.816018 -0.275449 -1.355908 57 57 57
1.322204 -0.123177 -0.896523 165 133 132
1.882540 10.091800 -1.450789 45 69 76
2.712829 9.693609 0.296758 151 169 180
1.040108 11.538514 -4.450777 122 101 69
0.576380 10.386085 -4.648255 110 89 69
2.639439 8.963488 -0.810276 150 144 137
2.112642 3.973244 0.582037 115 87 69
0.551074 5.212842 -4.958200 119 112 88
0.762783 3.932546 -4.703782 117 94 61
0.708932 3.143284 -4.461484 127 98 52
0.396531 0.393536 -0.577322 65 74 100
1.422698 0.681413 -0.667773 145 146 169
0.260659 0.143409 -2.072826 155 183 204
1.778576 0.614606 -0.740456 112 111 123
1.812866 10.284076 -1.619150 167 186 195
1.913936 10.206248 -1.756402 87 111 125
0.634712 10.055321 -4.917419 131 149 152
0.566152 4.240688 -4.586945 60 74 85
1.440335 4.097274 -3.274619 194 164 120
0.177945 -0.042328 -0.928390 133 151 160
0.177486 0.442193 -2.269813 123 131 136
0.158515 0.333450 -2.191006 145 171 187
0.206870 0.364840 -2.377313 187 154 112
2.043174 -1.614072 -1.382375 206 166 121
2.225170 10.165780 -0.434506 158 165 157
1.046871 11.655297 -4.318897 114 93 51
0.431745 0.017557 -1.719240 130 160 175
0.613671 -0.232351 -1.397562 119 134 146
0.406922 0.097344 -0.704072 170 190 216
0.447022 -0.051450 -0.742268 166 187 217
0.396781 0.031187 -1.761357 135 164 179
0.644118 -0.351504 -0.981562 147 130 111
1.776426 -0.506143 -1.182684 185 151 104
2.137754 -0.314042 -1.139268 0 0 0
2.125069 -0.577215 -1.153772 84 63 48
2.125069 -0.577215 -1.153772 84 63 48
2.152620 6.398855 0.867884 47 55 46
2.695359 8.044056 -0.009226 115 166 147
0.944690 3.463247 -3.990784 171 162 153
0.420585 -0.199101 -1.488713 62 81 94
0.950754 -0.415669 -1.018854 160 131 92
1.346195 -0.415306 -1.488266 180 146 97
0.575076 4.362103 -4.819159 187 197 206
2.744458 2.571245 0.305627 180 146 88
2.900616 2.586937 0.184352 169 122 77
2.746465 -1.754990 0.017713 0 0 0
2.309734 -2.573480 -0.883525 199 161 117
2.340888 5.933010 0.995737 135 134 118
0.738598 -0.219861 -1.364447 54 71 81
2.992747 10.156982 0.557108 112 94 70
3.010785 10.195857 0.563143 112 94 70
2.849741 8.834554 -0.906303 133 106 65
2.867851 0.729744 0.512406 203 172 120
2.759281 -0.990703 -0.400580 220 191 135
2.609603 -1.962342 -0.032866 171 124 68
0.487890 0.537299 -0.560061 42 52 73
0.780199 3.697421 -4.635916 135 109 73
1.728561 10.158555 -2.598891 62 61 61
2.434942 -1.404288 -0.493474 204 190 150
1.414466 9.876596 -2.597020 79 90 103
0.642761 10.630204 -4.754544 90 82 88
1.220428 10.456162 -4.154791 62 62 49
0.818314 9.630754 -4.694603 148 142 136
1.748905 4.885185 0.388122 87 84 75
2.672537 7.483374 -0.407909 58 165 211
2.835799 7.394712 -0.197229 95 111 124
3.104759 4.820360 0.809779 124 86 97
2.913500 4.674948 0.269035 117 86 50
0.585951 5.182571 -4.971262 46 36 14
0.558782 5.052811 -4.942494 117 105 79
0.661974 5.265738 -5.028321 110 100 75
0.762321 4.109795 -4.485804 190 200 206
0.646569 4.005765 -4.809569 111 116 113
0.519392 0.078704 -0.698110 74 83 107
0.238530 0.147489 -2.182986 141 164 180
0.906990 -0.110741 -1.224486 68 61 53
1.258723 0.100274 -2.651371 122 111 93
1.323264 -0.242106 -1.383277 80 69 58
0.252087 -1.262500 -0.334882 200 203 212
1.595657 10.463222 -2.706655 170 190 208
0.680802 10.536749 -4.588271 97 95 101
0.709511 10.292814 -4.604315 150 171 187
2.549286 8.634315 -0.392098 170 197 213
0.328640 8.061362 -4.783902 190 199 193
1.789875 4.433754 0.663183 89 81 64
1.808429 4.579322 0.414108 180 177 165
2.958231 4.242547 0.305749 120 86 41
1.175232 3.679420 -3.499459 197 187 181
2.137303 -2.285425 -1.208565 202 170 123
0.881495 9.783118 -4.823796 64 50 24
3.062860 4.589847 0.338139 119 84 37
0.459229 0.496909 -0.553457 81 84 108
0.041475 0.358242 -0.708064 0 0 0
2.674488 0.377164 -1.116301 165 131 99
0.616656 9.996365 -4.668951 183 204 220
1.466904 -0.064096 -0.894726 169 137 138
1.011319 11.442945 -4.484114 122 102 65
1.982487 9.355088 -1.402126 72 94 108
2.702297 8.652997 -0.580548 131 154 133
0.330165 8.214186 -4.920958 178 190 187
2.687733 4.773770 -0.280702 163 127 88
1.276028 -0.121123 -0.877491 195 125 106
0.788695 7.985259 -5.008147 121 99 68
0.526044 -0.047025 -0.732016 84 89 104
1.521577 0.004999 -1.724122 0 0 0
2.027533 9.745464 -2.738660 142 121 91
1.371655 3.954288 -3.349003 195 170 128
2.347167 9.569682 -1.419900 210 229 242
2.618818 -1.914094 -0.005615 170 124 68
1.850566 10.025615 -2.509841 182 183 182
2.034179 9.884592 -1.769516 152 168 177
0.556184 1.012718 -0.538541 157 180 208
1.464333 9.911407 -1.090234 160 179 192
1.741435 10.364670 -1.596241 56 71 83
1.952264 9.313207 -1.101147 4 17 17
2.116641 9.546105 -1.239503 0 0 0
2.208352 9.251307 -1.154105 99 96 99
0.870667 9.885893 -4.814393 103 99 98
-1.089050 0.507208 -1.036020 154 141 116
0.151562 0.717145 -0.509310 179 177 170
-0.049556 -0.185239 -0.924473 145 179 203
-0.151912 -0.311634 -0.843562 124 154 179
0.531102 -0.076175 -1.398476 113 134 148
1.688991 0.379736 -0.794088 179 178 191
0.578569 -0.399735 -0.957372 146 128 116
1.792676 0.199678 -0.869060 175 176 189
1.664756 0.057477 -0.871614 99 97 106
1.980131 10.677279 -1.495462 125 143 148
0.667713 10.518251 -4.665290 157 160 166
1.653341 4.227665 0.847019 147 144 120
2.175364 3.567901 1.522096 82 89 87
0.035764 0.545621 -0.379405 14 23 23
0.181533 0.598373 -0.446304 11 26 39
0.409125 0.261700 -0.621892 164 176 202
0.100868 -0.444100 -0.793092 128 148 163
2.026695 -1.740443 -1.493667 230 198 148
2.656895 -2.746194 -0.243197 191 159 102
2.251830 7.633075 2.013240 201 221 228
4.688606 14.812903 0.915916 106 98 83
1.757926 5.213906 0.327678 116 117 107
2.087438 3.610369 1.345766 120 121 106
0.331545 5.073933 -4.779937 153 156 147
0.441978 5.501006 -5.081800 153 156 147
0.547637 5.197882 -5.040070 51 39 18
0.427253 0.328176 -0.593919 155 186 222
1.316587 11.143829 -2.800277 73 62 52
-0.197554 0.722675 -0.260142 179 188 192
0.076806 -0.133706 -0.714741 68 79 92
-0.004788 -0.372084 -0.764587 23 37 53
0.022873 -0.360463 -0.751206 56 69 78
0.488947 -0.339251 -0.929062 83 88 95
2.905629 9.353868 1.446486 130 122 75
1.535803 4.144731 0.849424 129 118 88
1.967368 3.662132 1.455547 125 156 187
-0.052389 0.883100 -0.227463 79 74 64
0.362289 0.154163 -1.191677 127 150 168
1.732105 0.639731 -0.760554 172 175 192
1.732105 0.639731 -0.760554 172 175 192
1.726631 0.508092 -0.808648 173 173 190
1.728633 0.510500 -0.809290 173 173 190
0.813831 0.076460 -1.902648 194 165 122
2.074271 6.044563 0.656041 123 124 118
1.798335 3.763330 0.739926 154 140 101
0.487795 7.627988 -5.004274 143 126 100
0.641860 0.236049 -2.279921 210 176 118
1.692613 0.782365 -3.215627 218 192 141
1.850159 4.558477 0.381123 176 167 157
1.796604 0.087333 -0.914824 166 165 174
1.795041 0.087559 -0.914924 166 165 174
1.241075 10.605368 -2.357406 208 225 239
2.212638 3.905152 0.814052 90 65 64
2.518381 2.136469 -0.294822 197 165 118
0.608360 -0.026494 -1.941368 198 163 109
2.583704 9.068049 -0.769360 211 228 241
2.502914 8.590493 -1.152820 140 108 62
1.643787 1.025329 -0.729790 170 174 192
0.461846 0.072826 -1.935386 123 147 160
2.249923 -0.147943 -0.363237 0 0 0
1.643531 -0.450323 -2.437707 218 189 132
1.236561 -1.644829 -2.884978 237 213 162
2.198169 -1.013265 -1.228512 215 186 128
0.666392 0.053254 -2.474384 218 187 122
1.820297 6.344605 -5.107230 168 143 110
0.995008 0.013194 -1.427398 102 115 128
2.204890 10.870399 -1.076631 146 164 168
2.235952 8.454907 1.219806 144 153 149
-0.284947 0.209970 -0.360838 119 134 143
2.149808 1.080592 -0.673914 188 160 122
3.645839 11.062170 0.910799 100 96 97
0.492330 5.263316 -5.089636 88 76 59
0.149095 0.400779 -2.212927 116 121 125
-0.031688 0.089735 -1.928221 116 121 125
0.249648 -0.231415 -1.235572 130 158 174
0.490134 -0.392565 -0.895271 94 99 103
0.287296 0.008157 -1.245858 83 101 117
1.710414 8.583560 1.224407 210 103 95
2.999321 9.963799 0.967627 0 0 0
-0.246229 0.610660 -0.234025 170 180 186
2.304319 -1.494236 -0.760037 199 161 105
0.243612 12.807129 -5.574573 120 126 138
1.535803 4.144731 0.849424 133 118 89
0.474678 -0.212677 -1.496745 118 131 141
1.246867 3.465695 -3.545680 198 173 129
0.611000 0.348034 -0.606835 166 121 155
0.109008 -0.103838 -0.965120 37 54 66
1.374906 3.960467 -3.352793 191 164 121
0.788946 -0.202907 -1.166102 68 66 65
0.851084 -0.105659 -1.608260 175 149 118
1.653233 4.138656 1.491605 126 155 177
0.956275 2.346145 -4.058842 204 170 107
1.689077 -0.274589 -1.745463 187 144 81
0.910166 -0.278123 -1.199864 157 123 80
0.639094 8.226873 -4.813522 86 55 31
2.529276 4.904970 0.026289 175 164 152
1.527208 5.186827 -4.436119 0 0 0
2.474590 -1.409425 -0.513529 220 189 133
2.090772 8.135755 -0.132414 167 188 196
0.828807 -0.236161 -1.156943 152 125 98
0.140638 0.327545 -2.226621 121 122 134
0.561274 -0.194988 -1.639173 191 167 126
0.409299 0.249999 -2.291316 123 135 144
1.632065 4.994784 1.709763 202 217 221
2.602525 4.719237 -0.146941 166 149 147
-0.246217 0.524028 -0.252217 114 138 151
-0.279067 0.194391 -0.380481 112 138 153
0.757478 4.290920 -4.860958 95 94 83
0.384600 0.311118 -0.603202 166 186 215
0.173545 0.443710 -2.202326 149 174 194
0.194333 0.123120 -2.162881 146 166 177
0.299674 0.098154 -2.027584 74 107 131
0.387554 -0.132781 -1.337615 119 141 157
1.780330 0.191336 -0.863045 173 180 198
2.490005 -1.412366 -0.306819 0 0 0
1.693194 4.772574 1.237934 94 128 144
2.795576 7.402570 -0.255323 72 109 118
-0.186107 0.681433 -0.160576 134 153 156
0.723232 3.798634 -4.658963 64 48 24
0.516355 0.696909 -0.516652 69 86 115
0.091492 -0.331831 -0.729073 191 206 217
0.582744 0.772189 -2.871834 178 184 189
0.398297 -0.165449 -1.459601 74 93 107
1.717981 5.258030 0.236547 160 172 165
1.970966 3.612195 1.129936 163 158 126
-0.211406 0.628110 -0.253183 115 138 155
1.088120 3.848595 -3.754882 209 214 222
-0.301554 -0.010142 -0.450938 118 146 163
0.318661 0.226164 -2.320586 145 150 152
1.496650 -0.461812 -2.731414 228 206 163
2.661591 -1.787348 0.074969 212 187 135
2.368583 -2.012580 -0.582749 214 187 140
2.124088 -2.871587 -1.548596 201 177 140
0.567371 5.250326 -5.079644 46 39 26
0.076941 0.446889 -0.488175 22 32 39
1.264510 3.742143 -3.628302 177 151 119
1.646322 0.320107 -0.821774 168 180 202
1.858723 -0.393336 -1.881131 188 147 91
1.337554 -1.062386 -3.031814 234 213 172
0.525890 0.346081 -0.608207 168 185 212
2.160219 -0.543494 -1.083038 181 149 101
2.479857 4.450381 0.212476 169 111 143
2.007535 -0.585126 -1.204725 190 151 103
0.750289 -0.296506 -1.431598 176 146 108
2.495048 -1.811811 0.046542 198 162 116
2.985777 2.772169 0.537564 160 121 63
1.530221 0.155541 -2.715190 202 174 126
1.065208 3.839080 -3.773346 195 203 209
0.387552 -0.268475 -1.732079 204 174 123
0.637561 -0.158017 -0.818713 172 192 221
1.925629 3.959918 0.156460 0 0 0
0.202842 -0.244490 -1.209437 46 58 68
2.804310 4.571097 0.058391 73 36 26
0.583859 4.416164 -4.871015 172 179 179
2.720327 4.520875 -0.132705 61 35 16
2.980855 4.759282 0.455684 139 103 98
0.140467 0.596787 -0.478727 71 91 101
0.710757 3.324466 -4.720058 142 125 98
0.633220 0.820016 -0.501790 61 77 109
0.633025 0.819602 -0.501597 61 77 109
0.428417 0.072691 -0.686516 58 65 97
2.045420 1.139752 -0.665121 185 165 134
0.462821 -0.036282 -1.701171 39 73 100
0.442632 -0.233116 -1.298693 47 68 87
0.460332 -0.103375 -1.673301 100 125 148
0.420491 -0.220842 -1.519292 53 73 90
0.866500 -0.380418 -0.993170 98 98 98
2.141678 -0.461399 -1.076778 148 122 93
1.453791 -0.613817 -2.797296 227 208 168
2.145924 -1.168989 -1.164012 192 161 117
2.482888 -1.438639 -0.348306 216 191 148
-0.266817 0.296828 -0.343673 117 145 159
0.510697 0.520586 -0.563861 172 191 209
0.163847 -0.049086 -0.890934 133 151 163
0.529362 -0.350958 -0.946298 54 65 66
0.529362 -0.350958 -0.946298 54 65 66
1.894998 0.164072 -0.884099 167 177 195
1.397610 0.079835 -2.917381 111 89 74
1.937817 3.834868 0.925641 165 161 128
-0.365567 -0.076839 -0.415201 165 188 200
0.486960 0.018051 -0.718945 77 84 112
0.855054 0.179319 -0.737636 187 148 122
1.506673 0.186735 -0.833717 141 150 185
2.279415 -1.676668 -0.588868 224 205 162
2.541960 -1.877378 -0.185067 195 163 120
2.174830 -0.115307 -0.948102 172 145 110
0.966432 8.765930 -4.708908 0 0 0
2.570750 5.709537 -0.852608 156 128 96
0.793192 0.543035 -0.528761 170 146 133
0.893401 0.997629 -3.305837 205 180 124
0.304134 1.188716 -0.354131 42 56 58
2.025626 4.809642 0.236793 170 164 159
0.778835 -0.139328 -1.674055 177 148 111
3.097854 -0.866594 -0.483156 0 0 0
0.638238 5.135711 -4.972621 82 70 50
0.370397 -0.041708 -1.536218 80 96 105
1.019801 5.936188 -4.433229 90 78 60
0.827856 0.398086 -0.656844 116 98 70
2.908217 4.731799 0.672876 92 67 68
0.586153 0.609089 -0.551742 44 57 80
1.966433 3.811699 1.048922 103 106 100
2.880764 3.919727 0.274907 91 50 10
0.466604 -0.098834 -1.663483 97 104 111
1.764755 3.955711 0.741818 213 226 230
1.975135 3.902163 1.084806 116 158 201
3.143418 4.849296 0.739824 86 62 52
2.899067 4.718344 0.089937 113 72 49
0.413345 4.940932 -4.889834 94 95 76
0.602097 4.256181 -4.785818 175 199 216
0.682958 4.292871 -4.910349 77 83 73
-0.272850 0.186707 -0.393347 100 129 152
0.564680 0.753671 -0.504503 61 78 112
0.569751 0.623423 -0.542403 173 194 217
0.299651 0.994901 -1.760187 91 129 153
0.239423 0.810505 -1.935814 104 142 167
0.415466 0.736461 -1.545803 127 167 191
0.213814 0.829224 -2.094141 109 122 135
0.220835 0.670569 -1.972425 107 142 171
0.165780 0.605338 -2.127062 118 120 130
0.177158 0.595365 -2.114563 147 176 200
0.368798 0.314527 -1.656360 135 172 197
0.369475 0.314734 -1.657039 135 172 197
0.486820 -0.016807 -0.718554 174 194 223
0.472010 0.262921 -2.373500 125 136 145
1.697873 0.291756 -0.836631 86 94 121
1.911690 0.215480 -0.869849 169 181 205
1.397238 0.325496 -2.894208 197 182 162
1.241899 -0.280894 -1.371630 79 76 76
2.599880 -2.263316 0.005606 182 161 117
2.422920 -2.454149 -0.483676 185 157 119
2.443765 -3.012408 -0.176588 175 148 102
1.963146 3.982015 0.957643 108 146 171
2.767927 4.588515 -0.108115 127 92 61
1.026358 3.849846 -3.876078 191 200 213
0.680780 3.986130 -4.750895 49 47 39
0.114326 0.410242 -2.129472 118 127 140
0.656270 0.148645 -2.114582 202 183 144
0.708842 -0.217183 -1.331897 37 63 84
1.783450 0.084597 -0.908580 165 173 196
1.745924 0.013419 -0.908397 164 176 199
1.440703 -0.550148 -2.722233 223 204 170
1.503302 -0.514933 -2.798604 223 204 170
1.263962 -1.903594 -3.025704 234 217 183
1.778305 -2.570973 -1.880212 232 214 184
0.765941 3.714084 -4.713232 45 38 30
-0.249166 -0.187646 -0.628534 101 146 179
-0.218545 -0.144047 -0.657194 101 146 179
1.883347 0.235539 -0.910177 160 176 202
2.516190 -0.908724 -0.306860 196 171 127
2.896430 7.222880 -0.163311 116 114 101
2.076936 4.140032 0.570491 147 135 110
-0.291574 0.169139 -0.408739 162 180 194
1.896534 3.995827 0.908542 121 167 201
0.813620 3.827297 -4.451319 161 142 102
-0.446374 -0.387062 -0.512442 107 147 175
0.540018 0.134804 -2.198858 205 182 138
1.255066 3.480293 -3.557184 197 178 145
1.188376 3.176272 -3.723345 192 177 135
2.595882 -2.344659 0.030551 195 165 126
2.226990 3.802794 0.988866 85 78 64
1.422255 3.958831 -3.539833 190 175 137
1.413717 3.570273 -3.480682 169 144 111
0.981259 2.486371 -3.857615 196 173 128
0.050870 -0.459794 -0.778587 102 136 165
0.551125 -0.100792 -1.827059 200 184 160
3.017343 7.342630 -0.594379 162 145 109
1.585371 3.782526 -2.797887 157 128 87
1.585371 3.782526 -2.797887 157 128 87
1.576585 -0.428811 -1.522342 164 120 66
0.414802 0.218320 -1.023710 0 0 0
2.362227 -1.046751 -2.268651 217 198 163
1.734032 4.305509 0.862036 76 89 84
1.863507 4.566485 0.608678 82 82 68
-0.298788 0.075853 -0.409326 110 139 160
1.169233 3.682728 -3.640341 201 202 203
1.815284 0.545873 -0.759747 171 182 207
0.666000 -0.189629 -1.363909 78 103 124
1.390412 -0.337226 -1.453174 73 68 68
2.627176 -0.601038 -0.071084 174 146 102
2.219411 -1.488765 -0.251313 184 156 116
1.366210 -1.757559 -3.040500 243 225 192
2.539701 -1.896539 -0.192672 183 158 116
2.042408 -2.349799 -1.392494 198 176 138
3.132141 3.841517 1.004979 130 122 112
0.625601 3.652583 -4.503977 43 36 24
0.255607 0.133390 -2.153208 133 165 188
0.415103 -0.221737 -1.571156 70 97 119
1.436944 -0.458628 -2.632272 228 206 169
1.246310 -1.816100 -2.959278 213 194 156
1.907104 3.912477 0.900740 64 74 88
0.473268 0.554780 -0.542609 154 173 200
0.850683 0.785879 -0.578194 176 196 219
0.044994 -0.135946 -0.668364 56 72 88
-0.046818 -0.409126 -0.680224 44 65 74
0.626923 5.269521 -5.153994 114 104 80
0.773138 3.303013 -4.593640 126 100 63
1.785796 4.775652 0.404107 86 87 77
1.888479 -0.535344 -1.034345 176 186 197
0.489252 5.285232 -5.021585 107 103 85
0.330559 1.202966 -0.345883 30 38 38
0.185410 0.197301 -2.124072 128 165 190
1.473301 -0.348311 -1.193167 159 133 101
3.046458 5.336498 0.104693 0 0 0
1.968686 3.884948 0.791655 146 139 97
2.891033 2.232431 0.491363 184 154 103
0.680216 -0.136407 -1.234175 113 145 172
0.165432 0.050665 -0.821156 26 38 47
2.914922 4.671855 0.265464 98 57 23
1.781934 0.358952 -0.830987 33 30 36
2.460981 0.075435 -0.523664 157 107 54
0.907259 -0.420031 -1.008045 105 95 84
2.313062 -0.070079 -0.713795 115 99 70
2.091368 -0.538513 -1.134915 14 9 4
2.661748 -1.758526 0.071357 137 95 32
0.928800 -0.028944 -0.791546 76 75 95
0.117445 -0.093341 -0.971892 34 52 66
0.043829 0.639298 -0.332554 65 84 100
-0.976731 -1.558921 0.538731 0 0 0
1.705148 4.173552 0.827593 56 53 37
2.178871 -2.082623 -0.705747 108 97 78
2.029355 -1.567693 -1.397154 202 170 110
1.774702 0.090336 -0.908532 141 136 142
0.687241 -0.188286 -1.215561 120 137 144
2.846569 -0.957009 -0.419477 215 185 126
2.609821 7.771603 -0.055190 81 144 149
0.643765 10.239697 -4.670385 107 142 170
0.560742 10.073790 -4.949444 117 151 165
2.676737 7.576444 -0.467393 50 162 219
0.590852 8.407727 -5.325804 144 138 123
2.086784 3.937987 0.580131 96 80 76
1.114203 6.642123 -4.144072 137 126 95
0.281218 6.111388 -5.554482 150 156 158
0.279448 6.106011 -5.552033 150 156 158
0.499458 4.440148 -4.971491 176 194 203
1.103341 4.034246 -3.633395 149 139 126
0.547803 4.096574 -4.791374 13 31 46
0.572826 4.158470 -4.899191 107 121 135
0.540923 4.098190 -4.843487 107 121 135
1.162736 3.851277 -3.673408 143 152 173
0.177441 0.640212 -0.422227 0 22 53
0.737630 3.265849 -4.614279 149 133 108
0.313209 1.274305 -1.767745 121 154 182
-0.334573 -0.104013 -0.504312 146 191 224
0.213084 0.899272 -2.043196 101 119 134
0.332630 0.736874 -1.726412 126 167 200
0.330723 0.734153 -1.724343 126 167 200
0.395580 0.575977 -1.629345 123 164 197
0.395580 0.575977 -1.629345 123 164 197
0.177432 0.566491 -2.175915 96 116 144
0.074129 0.398649 -2.056298 96 117 134
0.199282 0.159148 -2.171226 66 104 141
1.780491 0.352954 -0.835131 86 98 129
0.461319 -0.062577 -1.655157 41 84 121
2.279150 0.469667 -0.828561 122 112 89
2.200998 0.185079 -0.880922 133 117 92
0.855270 -0.235603 -1.331886 152 145 128
1.382398 -0.167122 -0.907942 182 198 222
2.398977 -1.137607 -0.549739 214 194 156
1.205702 -1.821427 -2.907747 205 190 160
1.127055 -2.057944 -2.978165 233 218 184
2.340376 -2.436771 -0.879970 182 162 128
1.138869 -2.519311 -3.041922 236 223 189
1.091031 -2.545308 -3.004592 238 224 191
1.571958 -2.777171 -1.874678 232 216 193
2.517015 7.965411 -0.285398 114 163 149
2.522347 7.864954 -0.229061 145 195 190
0.635204 10.109285 -4.773014 167 198 224
0.726486 10.083175 -5.010516 2 38 60
2.695531 7.545874 -0.481936 77 109 126
0.471357 4.445250 -4.918354 41 50 66
2.394382 1.779602 -0.547361 180 162 130
0.396184 0.768016 -1.604072 125 168 203
0.396544 0.769433 -1.605634 125 168 203
-0.271918 -0.180872 -0.586770 95 148 187
0.409879 0.129691 -0.655443 68 84 117
0.070133 -0.224357 -0.750264 37 62 80
2.213530 -2.308264 -0.707040 176 149 120
2.700221 7.847070 -0.059375 124 180 193
2.065804 5.240441 0.721320 85 90 78
1.906547 4.935279 0.702112 85 90 78
0.369428 8.039772 -4.776464 64 59 50
0.412569 3.965636 -4.639931 27 39 51
2.806968 2.567286 0.181909 143 116 75
2.806968 2.567286 0.181909 143 116 75
0.447478 0.348677 -0.605890 155 186 222
1.404424 -0.852228 -2.947081 223 205 179
0.962628 10.824023 -4.198614 49 56 52
0.727140 9.901123 -4.758279 137 174 195
0.365870 6.113348 -5.372904 21 29 29
1.157068 4.148318 -3.793462 168 177 191
1.153744 4.141983 -3.787835 168 177 191
0.715120 4.173782 -4.449170 214 238 255
1.133297 3.834739 -3.677399 150 163 181
1.076732 -0.901164 -3.320794 194 173 143
1.219877 -2.085497 -3.048414 208 187 160
2.653440 8.086009 -0.663989 112 107 82
0.522942 6.667665 -5.148144 124 115 99
0.286916 0.987280 -1.753595 84 127 162
1.056671 2.433111 -3.875070 168 143 100
1.733695 0.599891 -0.777658 154 177 212
1.733695 0.599891 -0.777658 154 177 212
0.996081 -0.719907 -3.658767 195 175 141
1.290050 -1.946648 -2.746453 223 207 181
2.339838 -2.885729 -0.501048 186 162 122
1.567782 10.726960 -3.609279 126 121 102
0.512755 9.093490 -4.666506 168 201 215
1.177688 -2.196414 -3.064447 202 180 150
1.577360 11.734138 -3.797172 91 105 110
0.886456 8.407171 -4.701298 122 105 74
1.490307 6.995219 -3.291078 133 113 69
2.365717 5.501521 -0.955193 169 154 119
0.928210 4.002672 -4.043825 144 127 101
1.833209 4.672858 0.877924 99 107 99
0.382264 5.018288 -5.078595 25 34 32
0.496117 0.547876 -0.559405 74 97 132
1.097186 0.382378 -0.707794 143 126 165
1.946572 5.344333 0.227683 149 156 159
3.046862 2.832681 0.532503 144 112 63
1.122743 3.458960 -3.870459 155 130 102
1.122743 3.458960 -3.870459 155 130 102
0.172829 -0.235239 -0.853924 20 40 58
1.762148 4.624000 0.508704 74 77 73
1.054739 10.724989 -4.094660 45 59 57
1.723544 10.812759 -3.823250 132 124 108
0.968435 1.173289 -3.971994 180 150 109
0.607226 3.679613 -4.784097 28 40 46
2.135528 8.493933 -1.691983 123 110 83
2.701518 8.528091 -0.968846 128 111 73
1.976042 5.188657 0.570941 85 94 93
0.421557 -0.033686 -1.782198 127 146 155
2.245804 -1.879310 -0.878573 173 141 90
1.766385 3.956606 0.742661 207 208 199
1.416636 -0.792790 -2.920768 214 176 117
1.416636 -0.792790 -2.920768 214 176 117
0.338763 6.203321 -5.486150 174 180 178
1.024391 10.520099 -4.351707 146 173 197
0.884991 10.132733 -4.378286 122 159 185
1.782928 4.596008 0.681871 67 75 66
1.749897 4.367569 0.467740 157 162 166
0.412929 8.265040 -4.952710 64 63 53
2.926890 4.658912 0.545235 128 92 107
0.539079 6.916368 -4.999424 113 109 83
1.722288 0.053008 -0.916501 82 94 127
0.841295 -0.266183 -1.348978 156 146 135
2.627099 -0.601363 -0.071378 159 139 99
1.329367 -1.713600 -2.979393 209 194 160
2.494489 -1.917613 -0.175120 206 187 153
1.255097 -1.936138 -2.712341 227 214 187
2.110782 -2.708027 -0.972354 217 201 166
1.178188 -3.040210 -2.752445 195 179 152
1.177157 -3.040150 -2.751366 195 179 152
0.203456 2.304060 1.015741 176 204 212
0.433772 8.355379 -4.745374 55 62 57
2.407550 4.073550 0.475191 96 76 63
2.375618 1.616656 -0.588283 162 141 107
2.294796 -2.032565 -0.536823 177 151 119
0.237958 8.193952 -4.920876 168 192 204
0.345062 5.167822 -4.938820 0 0 0
1.084096 3.841516 -3.753117 198 216 234
0.349986 1.130780 -1.659079 92 129 160
1.756060 0.308432 -0.852739 82 93 120
2.417109 7.775561 -0.547207 79 163 193
3.792899 8.619167 -0.495468 0 0 0
0.775514 7.893782 -4.819788 117 104 67
0.896684 3.373933 -3.909235 156 157 160
1.019248 2.548010 -3.919540 192 174 131
2.368996 4.090388 0.847793 70 62 66
0.810830 0.532063 -0.527899 134 144 188
0.179046 1.117579 -0.214798 167 149 118
2.371207 5.016467 0.135369 158 157 161
1.679193 4.477743 1.341380 60 72 82
3.010112 4.711048 0.458484 92 46 22
0.769012 9.933121 -4.792280 144 179 198
1.764528 4.467134 0.452309 49 57 52
0.206650 8.313987 -6.169855 162 161 153
0.352024 6.162851 -5.509875 59 63 60
0.529737 5.500206 -5.261283 104 108 103
0.496866 5.073389 -5.288878 73 79 68
0.625214 4.353232 -4.586378 138 139 115
0.337144 1.385647 -1.977944 106 116 131
2.850994 1.608815 0.473942 151 126 96
0.199195 0.810316 -2.025896 144 179 205
1.340865 0.397595 -0.745394 184 202 239
0.597052 -0.008671 -0.752784 58 82 119
0.309239 0.102290 -2.069283 131 170 206
0.548418 -0.330215 -0.860534 41 47 55
1.874423 0.161783 -0.889602 149 168 203
1.445494 -2.246572 -2.365783 205 192 163
1.652352 4.092482 0.877795 123 165 201
0.691668 9.131707 -4.758355 93 87 76
-0.271002 0.299863 -0.340840 97 128 160
-0.283625 0.070864 -0.434806 96 135 172
0.455365 -0.075668 -1.676470 123 165 202
2.202915 9.181262 -1.603524 140 143 136
2.948451 5.023339 0.472236 0 0 0
2.943478 2.321878 0.616199 174 149 105
1.708316 0.243098 -0.906431 158 178 212
1.708316 0.243098 -0.906431 158 178 212
0.575507 5.149476 -5.259702 86 81 60
0.385702 1.268165 -1.682393 115 152 178
0.981675 3.287730 -3.145351 161 144 120
-0.271263 -0.041428 -0.564419 134 178 212
2.079760 5.450752 1.091249 108 123 132
1.276372 7.296453 -3.395236 159 139 95
1.269941 7.283073 -3.391629 159 139 95
2.491947 -2.052806 -0.823518 209 190 154
0.604290 3.675612 -4.782282 25 38 44
0.559999 3.611317 -4.795509 25 38 43
0.723226 3.550616 -4.724848 15 12 8
0.653021 4.163391 -4.516593 53 61 67
1.476227 -0.436912 -1.374960 63 60 54
0.135234 -0.128598 -0.786588 39 59 75
0.529338 -0.340036 -1.115889 79 114 153
0.583168 10.022646 -4.844204 140 166 186
1.552366 3.852026 -2.842315 146 121 87
0.827431 3.850220 -4.639002 147 129 100
0.110631 0.402546 -0.454953 5 27 51
0.231992 0.845287 -1.961749 137 176 210
0.192828 0.707188 -2.081011 141 174 202
1.276758 -1.760083 -2.953590 208 193 163
1.276758 -1.760083 -2.953590 208 193 163
1.246040 -1.975366 -2.937619 197 175 152
1.105996 -2.493118 -3.011963 210 193 161
1.094504 -3.268818 -2.773321 241 229 201
2.741886 7.526325 -0.345541 37 167 228
1.917460 3.759924 1.208649 0 0 0
0.445778 4.344403 -4.769180 178 198 210
2.889834 2.387669 0.450321 145 116 77
0.081130 -0.212970 -0.759585 38 61 74
1.235881 -0.303556 -1.440813 58 59 63
2.532106 7.886286 -0.233116 138 187 182
1.873782 -0.639262 -0.959375 157 136 102
0.552724 8.863779 -5.557529 137 132 117
1.961828 3.812375 0.971461 155 155 123
0.287731 8.619649 -6.316949 144 143 123
2.939645 4.520565 0.375603 103 75 40
0.137543 13.669694 -7.948407 107 118 111
0.744147 7.550411 -5.063947 138 128 105
2.780222 7.169322 -0.128331 110 116 121
2.785945 7.186984 -0.131474 110 116 121
2.111802 -0.545419 -1.264344 177 148 112
0.356956 0.157870 -2.187090 113 146 178
0.640750 6.407716 -5.110824 146 141 123
1.902515 -1.927366 -1.619345 135 115 79
1.796242 4.477660 0.596938 81 73 57
2.483598 -1.455718 -0.367719 165 126 86
0.408905 0.035475 -1.894984 131 171 206
1.938626 3.785300 1.214988 106 156 200
0.574216 2.380631 -4.966232 134 109 80
1.937682 3.373088 -0.615766 165 148 118
0.610095 9.122293 -5.686229 141 136 117
2.874772 4.761294 0.425613 0 0 0
0.658590 7.186765 -5.864708 34 36 34
0.219069 1.180382 -0.299115 69 72 68
-0.181332 0.714826 -0.250082 101 136 163
-0.215523 0.661988 -0.250106 144 180 204
0.556713 4.335364 -4.603401 129 131 110
0.193530 0.753687 -2.098265 108 120 133
0.198121 0.731033 -2.124296 109 123 138
0.677808 -0.100260 -1.435147 116 148 180
1.243123 -0.304592 -1.384309 68 70 72
1.413092 0.076795 -2.960551 190 168 140
1.209080 -2.319402 -3.002427 206 189 155
2.716229 7.732731 -0.534102 46 165 215
0.484941 9.512967 -5.820746 138 139 121
1.872479 3.748146 0.573244 144 130 117
1.488389 -0.143818 -0.876829 163 180 207
1.809762 -0.658760 -1.100843 173 148 113
0.422485 -0.198709 -1.486183 73 97 125
0.555793 8.099954 -5.309390 134 130 110
1.277856 4.119261 -3.605118 157 140 114
2.417943 0.173609 -0.573222 0 0 0
0.778269 9.091876 -4.676229 70 54 30
2.865973 -0.967787 -0.437099 205 190 148
3.092359 4.817224 0.609766 87 40 27
2.459616 -1.540099 -0.400934 203 163 104
0.391672 5.094914 -5.004079 26 31 32
1.754911 4.631452 0.380336 156 144 133
0.625531 3.137485 -4.838712 36 40 39
0.958369 -0.300928 -1.095152 72 78 86
1.882215 3.951797 0.604123 145 136 111
2.002381 3.847954 1.096621 125 166 192
1.801217 15.153506 -10.821942 153 153 138
0.406817 4.163228 -4.552886 91 97 104
1.093948 4.110898 -3.772557 148 146 148
0.403982 0.458553 -0.547992 168 188 221
0.119425 0.858806 -1.874325 105 124 142
1.917744 1.188741 -0.657585 163 148 125
0.056322 -0.177852 -0.848745 124 154 178
1.713113 0.443924 -0.766559 84 99 131
0.436128 -0.025568 -1.733857 54 94 125
0.501155 -0.297306 -0.957997 83 101 115
0.539299 -0.068463 -1.561741 100 122 148
0.378785 -0.256135 -1.343753 111 135 162
0.873762 -0.230485 -1.277063 157 141 110
2.464940 -3.006123 -0.818302 183 159 121
0.460715 4.390211 -4.810337 180 197 208
0.439360 1.393561 -1.717335 104 122 137
0.267759 1.167723 -1.998397 100 117 135
0.165062 0.388563 -2.256840 110 130 154
0.244298 0.161931 -2.117881 133 173 205
0.798093 0.406394 -2.554269 203 188 157
0.549970 -0.328916 -0.933187 47 53 56
2.814569 7.056362 -0.081277 161 166 166
0.472699 7.163046 -5.599979 137 140 133
0.438545 4.968374 -5.126947 32 34 32
-0.287467 -0.113497 -0.525257 103 147 185
-0.185395 -0.117172 -0.369521 51 72 84
2.205603 3.983192 0.821916 70 63 59
0.120942 5.033274 -4.661651 102 107 97
-0.244613 -0.136005 -0.713655 100 141 173
0.481782 0.228848 -0.663426 77 90 118
3.020831 4.722338 0.535113 98 62 45
0.317107 0.111957 -2.180473 118 140 160
0.704724 -0.119453 -1.458487 45 77 100
0.727417 -0.100568 -1.479544 45 77 100
0.560035 0.451343 -0.587201 156 185 220
0.323378 0.343349 -1.328830 99 141 173
0.925277 -0.280121 -1.119066 140 118 89
2.379630 5.364974 -1.144469 175 158 123
0.379232 -0.038898 -1.510065 117 158 187
1.580152 -0.213058 -0.765169 153 176 208
0.861259 -0.305762 -1.185246 154 129 95
0.560130 8.001840 -4.747894 83 53 33
0.706919 5.352259 -4.015818 148 140 112
0.245800 0.138973 -2.126354 69 87 103
-0.238194 -0.182176 -0.691463 87 123 151
3.198169 7.562881 -0.214023 81 83 82
0.818117 -0.229451 -1.333253 66 69 64
0.827154 -0.235502 -1.364159 104 96 80
0.668335 3.087601 -4.393732 76 64 43
1.324664 -0.332316 -1.406258 152 123 92
2.754126 2.608866 0.330175 166 141 94
0.704668 2.928915 -4.792192 131 106 74
0.363784 8.575749 -5.235925 0 0 0
0.611439 7.194543 -5.105518 114 106 86
0.573695 4.270457 -4.631763 15 54 78
-0.315549 0.181327 -0.333412 96 130 160
0.675056 3.651197 -4.493181 118 102 76
-0.279805 0.145246 -0.404921 87 122 153
1.913820 1.277147 -0.670310 161 145 124
0.123534 0.301973 -2.243595 173 162 131
0.322248 0.027100 -1.935527 130 170 202
0.562817 -0.058700 -1.823436 193 194 180
-0.275681 0.433935 -0.263053 104 138 167
-0.241614 0.410539 -0.322482 97 131 161
0.548621 -0.061037 -0.750014 154 191 228
0.594696 -0.245486 -1.030427 82 101 118
1.953616 3.819924 1.029960 81 103 103
1.362604 -0.131640 -1.321573 0 0 0
1.212165 -3.039128 -2.782485 198 183 154
0.598365 5.027676 -4.924021 104 95 71
0.898095 0.686300 -0.584758 167 147 139
1.674489 -0.383673 -1.579125 166 142 114
0.768417 0.098899 -2.077797 197 187 157
0.936555 0.860219 -0.545960 150 181 215
0.609589 1.058792 -0.544449 146 182 220
1.120539 0.187459 -0.787450 172 117 125
1.382607 0.538604 -0.645677 70 84 111
2.493259 -0.405151 -0.390879 115 74 24
2.146621 3.944803 0.557488 64 36 26
2.775288 1.771129 0.096025 127 94 53
3.065380 4.790911 0.725246 111 83 78
-0.231614 0.559809 -0.262103 97 131 161
-0.252043 -0.676779 -0.917605 50 90 124
-0.318514 -0.541971 -0.431283 45 61 76
1.952790 3.904618 0.887571 150 148 118
1.786512 4.900532 0.356292 0 0 0
-0.100034 6.964795 -4.226524 165 189 200
-0.205373 0.633376 -0.132771 69 81 88
0.286385 1.193772 -0.317070 29 28 19
0.507142 1.435858 -0.583180 53 83 98
0.816845 3.829751 -4.624935 144 127 96
0.376617 1.377421 -1.750619 102 119 133
0.190477 0.517864 -2.198037 137 172 201
0.270609 0.118861 -2.118214 123 164 195
2.039791 -1.613629 -1.385991 190 164 135
1.276443 -1.810035 -2.959562 236 220 187
0.724459 9.821224 -4.831418 2 22 45
1.863791 4.719396 0.683658 0 0 0
2.799313 4.599082 0.000597 111 82 61
0.707349 3.126787 -4.484257 117 96 59
0.166399 -0.023755 -0.774679 43 60 77
0.217641 0.029333 -0.818336 43 60 77
1.776232 0.427762 -0.776344 154 174 203
2.430746 0.311424 -0.982349 141 119 93
0.987104 9.606479 -4.542487 0 0 0
2.955404 4.243503 0.312542 114 88 51
0.428005 8.267185 -4.634856 74 65 56
-0.283014 -0.172049 -0.621302 127 171 205
0.377755 0.525920 -1.291622 95 140 172
1.218417 6.981846 -3.664432 163 143 101
0.952052 -0.938502 -3.663614 207 184 148
2.799266 2.039854 0.415203 0 0 0
0.560719 -0.039650 -1.816534 74 74 74
0.470723 5.063364 -5.372884 79 80 73
2.248152 -0.777673 0.150620 0 0 0
0.164848 4.064200 -4.727458 97 110 110
1.886400 -0.426101 -1.317962 61 53 38
1.272841 -0.330451 -1.413970 32 31 27
0.300211 8.112828 -4.838414 136 134 126
1.082309 6.650121 -4.545313 103 94 76
2.115834 -0.619158 -1.180319 200 161 113
0.655903 0.700892 -0.532793 53 48 55
0.514868 0.059186 -0.698180 80 90 89
0.056354 -4.851828 -5.477678 48 23 1
0.226812 -4.703140 -5.571545 148 115 70
-1.209313 -4.480796 -7.835798 55 43 33
0.483737 2.128347 -5.303344 143 115 82
2.964963 -0.063431 0.688574 131 103 70
-10.257314 -0.433601 -11.150259 99 102 100
0.450620 -0.091628 -0.691792 0 0 0
0.012741 2.180980 -6.536743 82 57 31
0.553708 2.194627 -5.373223 96 57 20
0.557448 2.193105 -5.345768 96 57 20
2.960083 0.508153 0.595579 121 92 52
-0.028007 2.083586 -6.459626 112 86 56
-2.370542 -5.526249 -6.722214 120 124 117
-4.733761 -5.126403 -5.813801 193 211 225
-4.476388 -5.185755 -6.011823 204 223 233
-0.081651 -0.395186 -0.806356 139 139 127
-3.952453 -4.979491 -5.796433 198 219 230
-2.547744 -5.556432 -6.391234 243 255 255
-2.357888 -5.475137 -6.256840 195 213 222
-2.386342 -5.523123 -6.413387 239 251 254
0.460044 -1.017630 -0.070082 112 121 119
0.427530 0.195416 -0.643646 82 90 89
0.175882 1.030483 0.265779 154 160 160
0.425095 0.452038 -0.565987 129 136 134
0.041278 -4.779448 -5.374851 44 31 22
1.142655 1.350209 -1.792011 206 204 211
2.941996 0.518510 0.620751 123 94 54
1.165977 1.404496 -1.949114 38 28 18
0.134785 -0.167278 -0.918823 142 148 148
-3.346766 -5.502479 -5.966267 243 255 255
-2.962633 -5.547142 -6.204616 245 255 255
-3.180040 -4.567228 -6.918169 142 131 114
-2.928413 -5.609075 -6.306196 245 255 255
-0.071181 -0.340637 -0.795104 44 45 41
0.454487 0.636789 -0.537513 134 133 127
0.483213 0.349151 -0.600544 87 90 83
1.595924 1.473538 -2.396445 163 145 132
-5.589453 -0.724134 -7.380720 117 93 76
-0.244164 0.804634 -0.253420 109 101 89
-0.244604 0.938525 -0.416754 224 224 232
-2.926829 -5.779893 -6.597952 215 226 235
0.372708 0.907058 0.396704 41 40 31
-4.744720 -5.563987 -5.490065 246 255 255
-4.348598 -5.518274 -5.593703 248 255 255
-4.954259 -0.491038 -7.611580 108 85 66
-3.868583 -5.630092 -5.954767 249 255 255
-3.780469 -5.614490 -5.957499 246 254 255
-2.824066 -5.008791 -6.554654 202 200 196
0.207585 -0.025520 -0.403584 145 142 136
0.183008 1.194603 -0.336258 53 43 42
-0.136478 -4.701824 -5.248548 105 81 61
0.046553 -2.819157 -4.250804 120 82 42
1.171538 1.174357 -1.140045 168 159 156
-5.154816 0.481485 -15.103978 208 202 196
-8.430360 -0.430640 -9.830457 102 93 90
-0.346418 0.743561 -0.300448 184 184 173
-0.208629 1.309565 -1.791597 223 220 214
-4.431481 -5.615389 -5.705951 250 254 255
-4.309876 -5.639119 -5.786882 248 253 255
-4.127517 -5.686973 -5.863939 214 219 226
-3.920459 -5.507780 -5.753778 249 254 255
-3.751206 -5.576869 -5.911087 248 253 255
0.693624 1.222511 -1.222690 73 70 62
0.558536 -4.827301 -4.863944 151 109 57
1.071658 0.667603 -0.349920 92 84 91
2.593056 1.581694 -0.867882 145 101 42
-4.561354 -5.604193 -5.562056 213 220 229
0.110297 2.185195 -6.080938 55 25 0
0.282600 2.218283 -5.616379 37 23 8
-7.939518 -0.225476 -12.197903 170 158 156
0.557165 -0.029742 -0.726472 100 105 110
-4.130641 -5.596901 -5.734989 212 216 226
-0.588264 -5.322162 -4.891362 63 61 50
1.838084 0.670665 -0.753732 42 19 4
0.281248 1.127000 -0.327427 41 38 30
1.204480 1.105875 -0.745659 40 28 18
0.468941 0.041584 -0.870203 136 129 123
-4.728030 -5.208755 -5.749986 204 206 213
1.690837 -2.234681 -2.488381 200 180 165
1.005947 0.789625 -0.566936 112 112 119
-4.966722 -5.738830 -5.593113 208 213 220
2.849361 0.592757 0.360072 126 85 44
1.789627 0.465290 -0.806934 125 107 94
1.842240 0.426715 -0.830536 122 104 92
0.527339 1.316148 -0.854661 255 252 248
1.378810 0.026295 -0.860476 134 114 93
0.939405 0.640664 -0.578178 0 0 0
0.945136 1.226942 -1.299561 198 192 200
1.534689 1.057733 -0.770988 36 22 9
-5.410511 -4.973664 -5.425081 204 193 190
-4.216469 -5.443976 -5.461747 209 214 221
-1.538228 -6.527262 -6.563113 52 40 21
0.856162 1.098986 -0.928977 70 64 57
1.174674 1.482789 1.051506 73 71 60
0.645578 1.393377 -0.944921 42 42 29
0.115706 0.758117 -0.472197 36 34 29
1.601691 1.467943 -2.409852 150 121 98
0.544684 0.639205 -0.526795 133 122 115
1.842187 1.457362 -2.010850 135 102 75
1.899003 0.264527 -0.899672 133 112 98
2.211037 1.031095 -1.083532 13 10 9
0.766779 0.608704 0.339287 0 0 0
0.914596 0.633446 -0.610779 124 82 50
-0.637516 -4.244903 -5.956370 0 0 0
-0.641086 -5.820696 -4.974470 112 107 95
-0.092357 0.987665 -0.195084 165 155 133
0.544551 1.415625 0.409776 0 0 0
0.227177 1.139071 -0.281070 71 68 60
-0.526467 -5.674152 -5.028444 124 118 109
-0.722850 -5.943407 -4.939967 46 48 43
1.112341 1.317702 -1.811261 158 136 132
1.571987 1.077661 -0.766137 139 103 57
2.494478 1.610358 -0.529839 143 100 45
0.724276 1.212810 -0.816834 42 37 29
-0.088687 -0.349914 -0.823469 45 46 39
1.473115 -0.090326 -0.918472 137 68 51
-4.928796 -5.131895 -5.900388 196 190 184
0.053623 -4.948030 -5.461397 119 87 59
-1.676177 -6.281726 -4.531724 164 162 162
0.668389 -4.456399 -4.046274 123 79 35
-1.952371 -6.244825 -4.353265 182 181 183
0.769196 1.253943 -2.557787 0 0 0
2.260500 0.991687 -0.978012 108 67 23
2.136515 0.971769 -1.059902 103 63 28
-2.244288 -7.831574 -5.061573 189 191 194
1.796185 0.387482 -0.831774 58 35 12
2.698853 0.077779 0.057534 150 115 74
-0.545561 -5.841780 -4.982452 43 42 39
0.019662 -4.851178 -5.461802 36 26 11
-0.251988 -6.736597 -4.283531 64 63 53
-0.168276 -0.808828 -1.454896 148 140 129
0.292862 1.012331 -0.429181 145 130 116
0.356593 0.870987 -0.436559 138 127 120
-2.363150 -4.670219 -4.276782 207 214 222
-2.146675 -7.747392 -5.025535 193 196 199
-0.573720 -5.355979 -5.015702 59 52 43
0.962402 -5.591617 -3.251358 138 124 109
0.782479 1.139065 -0.892708 66 61 50
1.764109 0.192989 -0.882427 53 27 1
2.696087 0.824170 -0.012263 114 77 37
1.021986 -5.440589 -2.955689 46 33 23
0.693149 1.224556 -1.227008 75 70 60
-1.351329 -6.077847 -4.548388 61 63 55
-1.351329 -6.077847 -4.548388 61 63 55
-0.344640 -6.428744 -4.172202 37 39 37
1.389860 1.096799 -0.736456 144 98 42
0.955444 1.134338 -0.599676 29 21 13
-4.864211 -5.145014 -5.926822 202 193 190
-2.436386 -7.571119 -4.048785 189 181 186
0.249317 1.171121 -0.221602 90 87 78
0.952755 -5.670280 -3.463244 60 40 11
1.698695 0.323498 -0.835893 124 103 84
0.411635 0.075294 -0.665362 143 137 131
-2.640465 -7.884149 -4.324381 165 151 145
-0.084705 -0.375612 -0.813701 219 221 221
-2.726881 -7.642736 -3.862748 152 157 171
1.480645 1.044328 -0.993641 137 96 51
2.013205 1.043280 -1.252688 113 75 25
0.445997 0.600527 -0.526256 126 117 109
0.993954 -5.865261 -3.071898 25 22 18
-2.781733 -7.541468 -4.142147 209 213 223
-3.899818 -7.960933 -4.025915 215 218 228
0.942279 -5.518411 -3.895153 138 93 42
0.662857 -0.272016 -0.918428 120 114 102
2.126839 1.056732 -0.839253 96 56 15
0.425894 0.118791 -0.655601 53 57 64
1.066522 1.139072 -1.150029 165 119 62
-0.824594 -3.942535 -1.165751 78 78 120
-2.717955 -7.182888 -4.615318 213 211 217
-2.502871 -7.152606 -4.505537 134 140 147
-2.355664 -8.010148 -5.365687 154 148 142
-1.792063 -8.237383 -4.357018 251 255 255
1.772268 0.493164 -0.792638 65 40 14
-4.155353 -8.086388 -4.464657 209 204 204
0.999872 0.886221 1.117808 89 86 79
-0.681070 -5.817134 -5.188980 65 62 54
0.085626 -8.097892 -5.010705 40 33 26
-4.322206 -8.356574 -3.727007 208 213 224
-2.761477 -7.479605 -4.910344 145 147 146
-2.257275 -7.823821 -4.008121 250 254 247
-2.768957 -7.330763 -5.727317 247 251 255
0.756656 -8.916876 -3.777056 57 32 7
0.859608 -6.017906 -3.398335 34 17 0
0.489868 -8.936899 -4.124941 101 96 89
0.205476 -8.612950 -4.700965 41 34 27
-2.264544 -7.858348 -4.223237 167 165 160
1.531528 -5.057312 -1.754895 143 110 79
-2.187649 -8.679230 -3.178105 72 77 86
0.979737 0.419913 -0.637349 138 85 40
-2.589707 -8.558909 -2.108230 97 99 106
1.097473 -5.582151 -3.366199 131 88 37
1.624744 0.728736 -1.633613 139 117 87
-5.848619 -5.059265 -5.624521 83 60 45
-3.002889 -8.466362 -2.265739 101 100 117
-3.112749 -7.968556 -2.650630 89 89 107
-0.019857 1.060551 -0.262902 62 53 37
-1.891820 -8.589805 -2.258717 87 94 114
-1.878536 -8.541484 -2.237707 87 94 114
0.410776 -8.774375 -4.329519 89 83 75
-1.893994 -7.292262 -3.469594 214 221 225
-1.293530 -8.886576 -3.716460 96 99 97
-1.162798 -8.939159 -3.906796 68 60 58
0.799690 -0.639621 -0.999277 134 99 58
0.656999 1.190443 -0.766150 101 95 82
0.306865 -5.168492 -1.121944 50 47 38
-3.261127 -8.362809 -2.495584 72 73 82
0.344653 0.861671 -0.427433 144 137 130
2.464542 1.240490 -0.744549 137 90 24
-0.106479 0.479677 -0.390873 61 53 47
0.261514 1.125226 -0.323626 38 35 30
0.914710 0.704656 -1.518375 31 28 18
-2.842916 -8.750636 -1.726532 216 221 225
-4.418404 -5.133431 -6.101743 200 189 187
-1.982001 -8.629439 -2.087712 194 195 206
-1.446375 -8.853358 -3.582856 184 201 220
-1.295979 -8.833995 -3.304116 251 254 255
0.449536 0.032759 -0.677276 123 118 110
0.512266 0.055646 -0.701468 58 51 40
-3.080555 -8.567234 -2.010579 221 223 228
0.527858 -9.022509 -4.078023 35 28 19
0.498432 -0.058121 -0.717314 53 48 36
-2.273840 -7.910203 -4.260067 169 166 160
0.621883 0.040435 1.061207 209 212 222
-2.987989 -8.579344 -2.061847 216 222 224
-2.453493 -8.571043 -2.089027 81 79 104
-2.527141 -8.754895 -1.771244 122 131 135
-1.872805 -8.621231 -2.101675 89 99 112
-1.529384 -8.262001 -2.047841 242 242 248
1.363473 -6.350918 -2.025820 130 91 49
-1.388697 -8.673764 -2.424771 83 85 93
1.563239 1.069945 -0.908137 144 102 37
-1.929839 -8.645594 -2.419426 102 117 129
-1.532601 -8.367727 -2.222354 236 238 241
-1.528628 -8.346465 -2.215909 236 238 241
-2.241723 -8.616639 -2.214919 218 220 227
0.966697 1.151495 -0.455293 26 18 9
1.129670 -0.083692 -1.239116 113 52 38
-2.936185 -8.819364 -1.494171 200 199 199
-0.704153 -9.844602 -2.224427 60 50 43
-0.670980 -1.045953 -2.719386 93 92 83
-0.013665 -8.906716 -4.226383 116 104 90
0.602935 1.463312 -0.039954 143 136 124
1.318474 -5.759476 -2.620513 54 20 0
-4.392207 -4.999878 -6.150722 86 61 38
-2.393773 -8.693099 -1.870129 138 143 149
-2.436430 -7.835500 -3.520815 182 187 194
-2.087942 -7.138489 -3.981976 169 167 157
0.409863 0.179992 -0.634015 71 65 54
2.146028 -0.569144 -1.123491 149 119 92
-2.708288 -8.330574 -2.190465 213 216 224
-2.365426 -8.668324 -2.033645 221 221 231
-3.000586 -7.321644 -4.124355 198 207 222
-1.938763 -8.382274 -3.055852 94 97 100
-0.290952 -9.758233 -2.017543 47 49 43
1.345243 -8.167420 -1.874230 100 71 39
1.344314 -8.566823 -2.161467 53 39 23
0.542264 1.168733 -0.424191 128 122 113
-0.122419 -0.289738 -0.796324 37 37 37
-1.218879 -9.688113 -2.787352 247 246 248
0.769997 0.573441 -0.588592 161 152 148
0.796973 1.170660 -1.003658 77 71 62
1.750898 0.491043 -0.811265 129 103 80
-0.276713 -4.526994 -1.719161 102 90 77
1.417835 0.136058 -3.019615 155 107 56
1.706064 0.222746 -0.864921 87 56 27
-0.760054 -8.858734 -4.039867 107 96 78
1.149762 -9.457962 -2.494247 64 60 43
-0.005755 -7.915637 -1.095385 50 48 45
0.841054 -7.524524 -1.351503 34 32 29
0.839900 -6.247121 -3.786733 43 31 19
0.094081 -0.339146 -0.786403 162 164 164
-3.686349 -9.416295 -1.959640 250 253 255
0.570200 -4.701087 -0.223486 54 60 51
-0.917881 -7.326447 -4.155098 125 117 104
0.604895 -9.918741 -2.742825 108 95 74
1.409773 -7.830710 -1.594326 118 88 55
1.680177 0.267397 -0.840894 124 94 68
-2.420597 -7.729306 -3.679869 178 186 192
0.250156 -1.986090 0.375962 208 210 221
1.622384 -5.032132 -1.584858 121 93 61
-0.069213 -0.160111 -0.801359 82 82 80
0.491406 -8.702038 -4.389515 40 34 27
1.030836 1.087433 -0.570028 167 126 94
